ply
format ascii 1.0
element vertex 256
property float x
property float y
property float z
property uchar red
property uchar green
property uchar blue
end_header
-0.380607 0.001383 -0.076872 46 204 113
-0.400904 -0.318715 0.175274 231 76 60
0.328602 0.067311 0.068367 46 204 113
0.229019 -0.158731 0.216542 231 76 60
0.339448 0.021194 0.120868 46 204 113
0.595706 -0.146895 -0.087319 52 152 219
0.347244 0.031015 0.032424 52 152 219
-0.334219 -0.101167 0.367047 241 196 15
0.438634 -0.185753 0.073580 52 152 219
0.054970 0.064040 -0.390445 231 76 60
0.472758 0.055702 0.225889 52 152 219
-0.425413 0.349284 0.173620 52 152 219
-0.201040 -0.021649 -0.383400 52 152 219
-0.269001 -0.175041 -0.362128 52 152 219
-0.340917 0.099516 -0.023743 52 152 219
-0.364628 0.219225 -0.198494 52 152 219
-0.042203 -0.021007 0.112720 241 196 15
-0.188494 0.220085 0.308921 241 196 15
-0.333393 -0.021842 0.368475 231 76 60
0.454198 -0.029681 -0.129012 231 76 60
0.490312 -0.098103 -0.100039 52 152 219
0.437006 -0.446286 0.111479 231 76 60
0.593750 -0.103845 -0.016625 52 152 219
0.414081 0.032540 0.257818 231 76 60
-0.460534 0.387953 -0.096855 52 152 219
-0.469247 0.182972 0.250975 241 196 15
0.592533 -0.097100 0.005807 231 76 60
0.321282 0.169683 -0.040715 46 204 113
0.249674 0.188477 -0.321659 231 76 60
0.258885 0.031320 -0.173276 52 152 219
-0.115295 -0.176404 -0.084695 52 152 219
-0.023454 -0.347541 0.163328 231 76 60
-0.399531 -0.163471 0.798560 241 196 15
0.179288 0.353065 0.052992 241 196 15
-0.130850 -0.013348 0.050768 46 204 113
0.143681 0.062511 -0.454345 231 76 60
-0.477052 0.286451 -0.060167 241 196 15
0.389589 0.222362 0.043114 46 204 113
0.303260 -0.004697 -0.203516 231 76 60
0.576728 0.013814 -0.077728 52 152 219
-0.650692 0.378091 -0.403865 241 196 15
-0.413676 -0.266422 0.456260 231 76 60
-0.336745 -0.414301 -0.062725 231 76 60
-0.389615 0.280302 -0.127916 52 152 219
0.528263 0.230379 0.055209 241 196 15
0.419219 0.322947 0.056262 46 204 113
0.375644 -0.125563 0.027552 52 152 219
0.435018 0.049535 0.206503 52 152 219
-0.461600 -0.181710 0.234807 52 152 219
-0.501705 -0.347615 -0.352575 231 76 60
-0.066880 -0.018793 0.101130 52 152 219
0.616334 0.007481 0.100758 52 152 219
-0.232369 -0.250779 0.019735 52 152 219
0.570289 0.228576 0.209107 46 204 113
-0.494413 -0.023430 0.113361 52 152 219
-0.348604 -0.281969 -0.292047 231 76 60
0.358320 0.252532 -0.042869 46 204 113
-0.345271 0.005826 0.038610 52 152 219
0.218538 0.082126 -0.061032 46 204 113
0.645202 0.109005 0.174120 46 204 113
-0.405909 -0.102859 0.095913 52 152 219
0.451576 0.046262 0.177238 46 204 113
-0.429032 -0.175399 0.317059 241 196 15
-0.401161 -0.071243 -0.029485 231 76 60
-0.334218 0.222468 -0.085092 52 152 219
-0.592362 0.118135 0.208245 52 152 219
0.527424 0.129395 0.036192 52 152 219
0.575674 -0.178061 0.169054 52 152 219
0.307755 0.212239 0.006627 52 152 219
-0.109357 0.237354 0.134723 46 204 113
-0.703046 0.067044 -0.031974 231 76 60
-0.213201 -0.126876 -0.253720 52 152 219
0.137718 0.135602 -0.077442 52 152 219
0.422902 -0.005436 0.010134 52 152 219
-0.842839 0.007942 0.261798 241 196 15
0.611291 -0.057640 -0.019250 52 152 219
-0.092806 -0.267972 -0.338302 231 76 60
0.114927 -0.106087 -0.034232 231 76 60
-0.411202 -0.113884 -0.119208 231 76 60
-0.642834 -0.146224 0.103113 231 76 60
-0.197579 0.055866 -0.060912 52 152 219
0.368308 -0.033589 -0.161778 52 152 219
0.227508 -0.327981 0.305420 231 76 60
0.467379 0.384318 -0.236582 52 152 219
0.558221 0.170756 0.020434 52 152 219
-0.435621 -0.416834 0.350309 231 76 60
0.477926 -0.563722 -0.107037 231 76 60
-0.339843 0.189657 -0.062062 52 152 219
-0.417602 0.215900 -0.140597 231 76 60
-0.847244 0.053369 -0.118603 231 76 60
0.500828 0.123801 -0.236304 231 76 60
0.180749 0.128167 0.184820 52 152 219
-0.275019 0.031661 -0.560631 52 152 219
-0.703306 -0.076101 -0.501776 231 76 60
-0.463029 -0.249555 0.101906 231 76 60
0.459935 -0.111192 0.001575 52 152 219
-0.577238 0.100538 0.091321 231 76 60
0.469829 0.036936 0.138901 52 152 219
-0.324480 -0.178190 0.058321 52 152 219
-0.275429 -0.122542 -0.402564 231 76 60
0.388749 0.182404 -0.292501 52 152 219
0.541577 0.038802 0.086862 231 76 60
-0.298617 -0.123684 -0.303170 231 76 60
-0.608770 0.450383 -0.164292 52 152 219
-0.589074 0.283782 -0.255984 52 152 219
-0.617023 0.064909 -0.208646 46 204 113
-0.437329 0.432764 -0.040376 241 196 15
-0.254262 0.102681 -0.142667 52 152 219
0.280768 0.024697 -0.123294 52 152 219
-0.220655 0.193891 0.058375 231 76 60
-0.110060 -0.328749 0.180940 231 76 60
-0.684935 -0.240641 -0.004935 231 76 60
0.291696 0.189192 -0.241598 46 204 113
0.490679 0.005611 0.011116 52 152 219
-0.601320 -0.065569 0.409832 52 152 219
0.238550 -0.003875 0.185587 52 152 219
0.367950 0.036301 0.062601 46 204 113
-0.394319 -0.413641 -0.031214 231 76 60
0.323657 0.136891 -0.157369 52 152 219
-0.773458 0.012489 0.216134 241 196 15
0.474209 0.054136 0.220115 52 152 219
-0.443658 -0.273886 0.052976 231 76 60
-0.381189 0.246214 0.371234 241 196 15
0.570150 0.007828 -0.077655 52 152 219
-0.633080 0.063204 -0.018544 52 152 219
0.496819 -0.254312 -0.123742 231 76 60
-0.426652 -0.219527 0.399425 241 196 15
0.296466 -0.035639 0.164599 231 76 60
0.353213 -0.065474 0.239270 52 152 219
0.580534 -0.110189 -0.017041 52 152 219
-0.132313 0.300889 0.143496 52 152 219
0.104777 0.227784 -0.057648 241 196 15
0.214632 -0.058406 0.145875 231 76 60
-0.147614 0.498252 -0.854374 52 152 219
-0.501372 -0.358215 0.091426 231 76 60
0.493812 0.244321 -0.295374 52 152 219
0.463718 0.105383 0.001083 52 152 219
-0.398511 0.051420 -0.209597 52 152 219
-0.753162 -0.228440 -0.147578 231 76 60
-0.428110 0.132679 0.004593 231 76 60
0.534570 0.007365 0.153416 52 152 219
0.401698 0.125351 0.006538 52 152 219
-0.490096 -0.184835 0.263818 46 204 113
0.372645 0.156019 -0.365319 46 204 113
0.313467 0.077995 0.257245 52 152 219
0.378729 0.117015 -0.154741 52 152 219
0.360941 -0.056077 -0.080533 52 152 219
-0.122096 -0.080301 -0.329458 231 76 60
0.414122 0.391350 -0.154019 52 152 219
-0.140826 -0.066933 -0.041116 52 152 219
-0.129272 0.473187 -0.138446 241 196 15
-0.765164 0.012651 -0.059492 231 76 60
0.398480 -0.112823 0.013592 52 152 219
0.350943 -0.064428 0.066172 52 152 219
0.417217 -0.094259 0.121636 52 152 219
0.404098 0.001135 0.146791 46 204 113
0.032921 0.016409 0.126669 46 204 113
0.073845 -0.142185 -0.046879 231 76 60
0.531644 -0.157154 0.248091 231 76 60
-0.296397 0.221682 0.395117 241 196 15
0.413349 0.086791 -0.020066 46 204 113
0.213503 0.232130 0.112476 46 204 113
0.267640 -0.182581 -0.118828 52 152 219
0.139867 -0.106789 -0.104409 231 76 60
-0.287347 0.173737 0.400106 241 196 15
0.278915 0.242520 0.004946 52 152 219
-0.147808 -0.036890 0.492920 241 196 15
-0.466422 -0.164436 0.152876 231 76 60
-0.409260 0.111069 0.012155 52 152 219
0.206675 -0.056707 0.066300 231 76 60
0.120758 -0.123713 0.056606 231 76 60
-0.284844 -0.095981 0.078977 46 204 113
-0.147734 0.071360 0.285231 46 204 113
-0.654745 -0.116831 -0.181755 46 204 113
-0.605545 -0.122654 0.200536 52 152 219
0.585603 0.228586 -0.227112 231 76 60
0.417669 -0.064880 -0.051159 52 152 219
0.542043 -0.111153 0.067985 231 76 60
0.295458 -0.093732 -0.074900 52 152 219
-0.441020 0.229174 0.324366 241 196 15
-0.402687 -0.027016 0.175679 52 152 219
-0.231734 -0.024299 -0.261465 52 152 219
-0.662768 0.262961 -0.166983 52 152 219
-0.620635 0.006103 0.116143 231 76 60
0.432308 0.093254 -0.202493 52 152 219
-0.582932 0.033392 0.035779 52 152 219
-0.217866 0.257333 0.075551 241 196 15
0.451896 -0.362630 0.181760 52 152 219
0.299677 0.073821 -0.174463 52 152 219
-0.420735 0.258665 0.124082 52 152 219
0.475258 -0.209325 0.079323 52 152 219
-0.297934 0.138127 0.221621 46 204 113
0.210447 -0.134773 0.005717 46 204 113
0.164961 0.206410 0.138249 46 204 113
0.332692 0.215009 -0.108588 46 204 113
-0.066670 -0.258156 -0.050895 231 76 60
0.359379 0.035162 -0.049549 52 152 219
-0.405234 -0.306450 0.141872 52 152 219
-0.525137 -0.301315 0.037859 231 76 60
0.519607 -0.035431 -0.147839 46 204 113
-0.028847 -0.287665 -0.216926 231 76 60
-0.149292 0.007224 -0.039194 52 152 219
-0.472859 -0.094454 0.035409 46 204 113
0.298568 -0.032763 0.039999 52 152 219
0.238902 0.139534 -0.001623 52 152 219
-0.278134 -0.234223 -0.017245 46 204 113
0.310784 -0.078226 -0.110140 231 76 60
-0.188422 -0.050013 0.015491 46 204 113
-0.174293 -0.050252 0.414297 241 196 15
-0.110973 0.389699 -0.088373 241 196 15
0.349764 -0.233484 -0.222223 231 76 60
0.522338 -0.039013 0.187964 52 152 219
-0.579492 -0.463559 0.207066 231 76 60
0.289913 -0.086596 -0.094953 52 152 219
0.144318 -0.175170 -0.206066 231 76 60
-0.328666 0.140607 -0.202542 231 76 60
-0.382225 0.195775 0.173056 241 196 15
0.481513 -0.267120 -0.082504 231 76 60
0.198269 -0.106251 -0.271352 231 76 60
0.632571 -0.069473 0.169646 52 152 219
0.534981 0.062747 -0.031731 52 152 219
0.449873 -0.157076 0.111562 52 152 219
0.269333 -0.134468 -0.161622 231 76 60
0.566794 0.223813 0.016208 52 152 219
0.339153 -0.011515 -0.041817 52 152 219
-0.363065 -0.125723 0.162035 46 204 113
-0.006011 0.448040 0.683817 241 196 15
-0.645513 -0.231640 -0.045018 231 76 60
-0.350759 0.079683 0.209572 52 152 219
0.482923 -0.151265 0.082260 46 204 113
0.341002 0.105438 -0.023239 46 204 113
-0.181048 -0.244727 -0.395080 231 76 60
-0.548889 -0.354944 0.029619 231 76 60
-0.472674 0.031672 -0.100347 231 76 60
0.626077 0.165076 0.226502 241 196 15
-0.362297 0.146925 0.371401 241 196 15
0.599142 -0.159218 0.097493 231 76 60
-0.308055 0.169193 -0.139615 52 152 219
0.202342 -0.137946 -0.156200 231 76 60
0.622523 -0.167057 0.107095 52 152 219
-0.312998 0.236781 -0.368494 52 152 219
-0.463746 -0.017805 -0.475123 231 76 60
-0.811358 0.232885 -0.081726 46 204 113
0.240700 -0.148846 0.217700 231 76 60
0.483563 -0.084684 -0.175133 46 204 113
0.540555 -0.126700 -0.131423 52 152 219
-0.126052 0.077316 -0.307692 231 76 60
-0.498903 0.021318 -0.351541 52 152 219
0.290653 -0.025482 -0.174303 52 152 219
0.581744 0.154486 0.085324 52 152 219
0.480313 -0.050902 -0.003723 52 152 219
-0.170638 0.044169 -0.156815 52 152 219
-0.692786 -0.072114 -0.225936 231 76 60
-0.309443 -0.129946 0.071298 52 152 219
-0.321301 0.239781 -0.255936 46 204 113
-0.111172 -0.180397 -0.058264 241 196 15
